ply
format ascii 1.0
element vertex 1240
property float x
property float y
property float z
property uchar red
property uchar green
property uchar blue
end_header
52.7826 5.54183 1.26649  255 255 255
52.7826 5.54183 1.26649  255 255 255
-16.1903 31.3282 -66.5075  255 255 255
-16.8444 30.9017 -65.8761  255 255 255
-70.2201 32.2047 -34.0172  255 255 255
-27.2348 31.8102 -65.5767  255 255 255
-67.4354 32.5185 -39.3023  255 255 255
-67.4354 32.5185 -39.3023  255 255 255
-65.9975 32.6315 -41.0697  255 255 255
-53.0533 32.3837 -50.3348  255 255 255
-19.9985 29.9515 -64.8639  255 255 255
-8.66441 27.7365 -63.2647  255 255 255
-20.0121 29.4148 -64.2874  255 255 255
-29.0587 30.985 -64.7851  255 255 255
-29.0538 30.9653 -64.7435  255 255 255
-13.3688 27.5742 -61.4175  255 255 255
-64.4282 31.8762 -42.2536  255 255 255
-47.8419 31.7106 -57.6689  255 255 255
-48.0249 31.4284 -56.4163  255 255 255
-28.8929 29.2779 -63.1286  255 255 255
-65.7558 30.9857 -43.1506  255 255 255
22.2286 18.5236 -54.7063  255 255 255
-55.8481 30.2061 -50.5669  255 255 255
62.3993 -2.67221 18.2015  255 255 255
62.2815 -2.40954 15.6669  255 255 255
-43.2753 29.6199 -61.7971  255 255 255
-54.2163 29.7619 -53.863  255 255 255
-27.471 26.4604 -60.1618  255 255 255
-23.1947 25.6479 -60.2658  255 255 255
-75.2962 31.0513 -43.6573  255 255 255
-0.788677 20.4436 -55.8342  255 255 255
-47.4332 28.922 -58.7522  255 255 255
-29.4897 26.1442 -60.2279  255 255 255
-66.2471 29.1345 -43.4401  255 255 255
-55.5528 28.9665 -53.1873  255 255 255
-53.0976 28.7529 -54.3933  255 255 255
-64.1789 28.9723 -45.7942  255 255 255
-48.226 28.6233 -59.1945  255 255 255
-54.0171 28.2325 -52.5246  255 255 255
-54.0171 28.2325 -52.5246  255 255 255
-19.4768 23.0344 -57.0401  255 255 255
-73.5472 29.4997 -42.631  255 255 255
-62.5614 28.1641 -46.59  255 255 255
-78.7185 28.826 -35.6629  255 255 255
30.8024 12.9171 -49.2786  255 255 255
51.99 7.67347 -39.0795  255 255 255
59.2273 -2.46994 9.01748  255 255 255
-36.8418 25.5466 -58.2406  255 255 255
-36.8418 25.5466 -58.2406  255 255 255
59.3284 -3.02786 11.555  255 255 255
-40.4255 26.2628 -59.2849  255 255 255
-16.6032 21.2425 -54.5  255 255 255
-53.6059 27.6924 -55.98  255 255 255
-0.014746 17.5639 -51.4674  255 255 255
-33.1155 24.3722 -58.3615  255 255 255
-62.6887 27.42 -47.6553  255 255 255
-62.8202 27.5717 -48.2272  255 255 255
-34.6245 24.4306 -57.9234  255 255 255
-17.5701 20.807 -54.2299  255 255 255
-61.1232 27.6264 -50.667  255 255 255
-83.1628 28.0754 -32.6836  255 255 255
-60.6956 27.4794 -51.2248  255 255 255
-60.2342 27.0426 -48.9297  255 255 255
58.5459 -2.84712 7.93653  255 255 255
-65.8068 27.2654 -45.6657  255 255 255
-58.8205 27.1124 -52.3556  255 255 255
-58.4551 26.7384 -50.4167  255 255 255
-75.2811 28.3027 -44.1771  255 255 255
-62.794 27.0616 -49.6632  255 255 255
-56.0974 26.3582 -52.2324  255 255 255
-40.8439 24.5976 -57.3887  255 255 255
-31.5487 22.5816 -55.4348  255 255 255
60.9122 -4.96214 14.8618  255 255 255
-59.1059 26.8694 -52.763  255 255 255
-58.5409 26.7494 -53.2297  255 255 255
-60.9941 26.6778 -51.3991  255 255 255
57.896 -3.53535 7.32578  255 255 255
-62.0465 26.5525 -51.0026  255 255 255
-57.4318 26.3894 -54.3853  255 255 255
-53.8559 25.8159 -54.9022  255 255 255
-2.33963 15.965 -50.0552  255 255 255
-77.512 26.734 -38.1949  255 255 255
-78.1485 26.7132 -37.9141  255 255 255
-56.7402 26.0256 -55.2514  255 255 255
-80.9612 26.4514 -33.9155  255 255 255
-73.7786 26.9701 -43.9445  255 255 255
-59.0317 25.9877 -53.8246  255 255 255
-62.0602 25.9644 -50.9991  255 255 255
-62.0602 25.9644 -50.9991  255 255 255
59.3281 -4.9807 9.97084  255 255 255
-62.9346 25.3545 -48.6978  255 255 255
-39.9354 22.0324 -54.2168  255 255 255
-20.9364 18.1034 -50.9478  255 255 255
-25.8445 18.5669 -50.2623  255 255 255
44.7411 5.29702 -41.3354  255 255 255
62.2597 -7.02181 15.4177  255 255 255
-57.374 23.999 -52.5635  255 255 255
-7.6137 1.79141 23.3247  255 255 255
-79.6729 25.1541 -38.256  255 255 255
-75.4599 25.7458 -46.0755  255 255 255
-63.5995 24.3557 -51.2989  255 255 255
-57.557 23.9097 -56.4193  255 255 255
61.3182 -6.89313 10.988  255 255 255
-65.7989 23.7441 -48.6335  255 255 255
-9.1536 13.3108 -45.6444  255 255 255
-82.0588 24.3862 -35.9047  255 255 255
-79.7472 24.4482 -39.0791  255 255 255
-57.5482 22.9637 -54.0365  255 255 255
-25.7826 15.9098 -47.3037  255 255 255
-90.9027 26.3485 -41.3946  255 255 255
-81.6074 24.1203 -37.6499  255 255 255
-78.5613 23.638 -39.1151  255 255 255
-64.0449 23.1344 -52.1976  255 255 255
-81.6014 23.6882 -38.0035  255 255 255
-65.1964 22.4797 -50.1169  255 255 255
-35.8163 16.4052 -47.2746  255 255 255
-35.8163 16.4052 -47.2746  255 255 255
-10.8459 0.625001 23.4609  255 255 255
-23.5195 13.8908 -45.3879  255 255 255
-66.4498 22.2357 -50.6313  255 255 255
-68.1413 22.3105 -49.6509  255 255 255
56.0843 -6.42558 0.728107  255 255 255
-23.6696 13.4544 -44.9407  255 255 255
56.8782 -7.10603 1.86037  255 255 255
41.491 0.778593 -36.3682  255 255 255
8.65887 -4.31456 29.3078  255 255 255
57.6439 -8.22871 3.07572  255 255 255
9.77461 -5.02846 29.5285  255 255 255
10.8497 -5.44315 28.8683  255 255 255
59.6743 -9.80414 6.3222  255 255 255
53.5354 -7.37979 -5.81728  255 255 255
-41.3684 13.3269 -44.4756  255 255 255
41.1298 -2.16999 -33.0808  255 255 255
13.0387 -6.64117 27.4646  255 255 255
41.8049 -3.32836 -31.5784  255 255 255
5.29166 -6.34243 32.4324  255 255 255
65.9112 -13.8885 18.5532  255 255 255
40.5338 -3.83631 -30.3213  255 255 255
62.5317 -12.8104 12.4911  255 255 255
48.932 -7.24571 -16.2946  255 255 255
-11.7138 -3.26611 27.5565  255 255 255
-15.9419 -2.15473 22.3371  255 255 255
-58.7935 13.9086 -43.778  255 255 255
-60.8749 14.1913 -44.3448  255 255 255
-60.8749 14.1913 -44.3448  255 255 255
-17.6311 -0.585367 9.70309  255 255 255
-17.9035 -0.869245 10.114  255 255 255
-66.6881 14.4571 -42.6828  255 255 255
66.8492 -15.6955 19.3529  255 255 255
51.3797 -10.2369 -12.9843  255 255 255
-61.2729 12.2668 -42.0981  255 255 255
-44.5071 8.19306 -38.57  255 255 255
24.2643 -9.60913 12.5256  255 255 255
-50.4533 9.12088 -38.5189  255 255 255
-75.8791 14.2563 -43.8394  255 255 255
51.3955 -11.3713 -13.1411  255 255 255
60.8591 -14.7999 5.09382  255 255 255
-43.2527 7.12679 -38.4966  255 255 255
-42.3427 6.6704 -36.7357  255 255 255
-14.8258 -5.4881 26.9878  255 255 255
-9.72496 -6.87031 31.5466  255 255 255
-24.5572 -1.68139 6.92185  255 255 255
63.509 -16.4249 8.36325  255 255 255
14.2663 -10.7271 28.5814  255 255 255
-74.4551 12.0195 -41.5866  255 255 255
-20.588 -3.56531 13.3787  255 255 255
-20.588 -3.56531 13.3787  255 255 255
24.9504 -11.4481 14.1686  255 255 255
2.72425 -9.97884 34.5221  255 255 255
-38.1919 4.03353 -33.9876  255 255 255
-18.1232 -5.31831 22.6985  255 255 255
4.82297 -10.5097 34.3868  255 255 255
4.82297 -10.5097 34.3868  255 255 255
60.9825 -16.6859 4.97341  255 255 255
-40.0705 4.16343 -33.3001  255 255 255
47.5892 -12.2987 -22.2661  255 255 255
61.6361 -17.0997 3.94866  255 255 255
48.3867 -12.6978 -22.0844  255 255 255
48.4292 -12.7142 -22.1928  255 255 255
53.5625 -14.7931 -10.4757  255 255 255
-18.1209 -6.32605 23.9192  255 255 255
-38.0726 2.49801 -32.5353  255 255 255
47.4999 -13.3389 -20.859  255 255 255
62.674 -18.3546 5.06361  255 255 255
47.4875 -13.6637 -21.303  255 255 255
9.40794 -12.2554 32.9675  255 255 255
26.0353 -13.5685 16.4156  255 255 255
59.8345 -17.633 -0.635287  255 255 255
-24.7086 -4.6125 10.2523  255 255 255
10.4136 -12.76 32.1912  255 255 255
-32.9039 0.144571 -28.9047  255 255 255
-75.0374 8.45137 -37.1146  255 255 255
-51.4462 3.51143 -32.5342  255 255 255
-61.7405 5.33796 -34.2773  255 255 255
63.9968 -20.1486 9.44444  255 255 255
-52.2357 1.42964 -15.7813  255 255 255
24.2737 -14.8194 18.016  255 255 255
-40.0243 0.229923 -29.2072  255 255 255
19.4013 -14.6927 22.831  255 255 255
-64.949 4.6791 -33.2911  255 255 255
-5.14389 -11.78 35.3038  255 255 255
5.42824 -13.6302 34.9806  255 255 255
-2.11684 -12.7051 35.7837  255 255 255
-48.6509 0.237735 -29.2255  255 255 255
-23.5908 -7.92031 17.9655  255 255 255
-10.9684 -11.2287 32.8913  255 255 255
-17.3017 -9.99968 26.9163  255 255 255
24.8762 -17.0452 20.7631  255 255 255
-45.1515 -1.59822 -27.5584  255 255 255
-46.4362 -1.54722 -27.1396  255 255 255
-0.820786 -13.9752 35.9827  255 255 255
18.2907 -16.6046 25.1995  255 255 255
-48.3881 -1.40505 -27.109  255 255 255
11.2827 -16.1459 32.3078  255 255 255
65.3318 -23.8208 4.42164  255 255 255
-49.7922 -1.96089 -26.6428  255 255 255
52.2451 -20.8649 -13.174  255 255 255
-52.5902 -2.40274 -17.2253  255 255 255
-10.0227 -13.1939 33.9247  255 255 255
53.1961 -21.5697 -12.557  255 255 255
-27.6183 -9.40913 16.2271  255 255 255
-18.8388 -11.6585 25.9238  255 255 255
-51.186 -3.26055 -24.6526  255 255 255
-27.5898 -10.0831 16.7876  255 255 255
4.89563 -17.0714 35.1621  255 255 255
-34.9484 -7.46642 -22.0746  255 255 255
-41.3082 -6.40205 -20.2544  255 255 255
-38.4535 -6.95227 -21.4765  255 255 255
51.9508 -23.8818 -10.4493  255 255 255
23.6279 -20.7708 24.648  255 255 255
70.0375 -28.5328 17.29  255 255 255
-49.6055 -6.08182 -21.5554  255 255 255
54.0779 -25.1898 -8.41132  255 255 255
65.111 -27.8164 6.80022  255 255 255
-58.2156 -4.94538 -23.1055  255 255 255
69.9158 -29.3164 16.6301  255 255 255
70.4453 -29.7029 17.171  255 255 255
65.1322 -28.437 1.66239  255 255 255
-41.8294 -8.764 -18.8569  255 255 255
54.3825 -26.4838 -8.04996  255 255 255
4.66903 -19.1757 34.9527  255 255 255
-42.4503 -9.25013 -18.9731  255 255 255
-8.98359 -16.7845 34.1386  255 255 255
0.904361 -18.6465 35.9166  255 255 255
15.2628 -21.1742 30.4654  255 255 255
-43.9994 -9.149 -19.2205  255 255 255
-15.0712 -16.0871 30.9101  255 255 255
-44.1146 -9.89385 -17.6918  255 255 255
-38.4661 -11.0688 -16.9091  255 255 255
-49.8962 -9.1198 -18.1498  255 255 255
70.1023 -31.5586 15.1286  255 255 255
-48.8352 -9.4205 -17.8487  255 255 255
-51.0356 -9.0613 -18.3407  255 255 255
70.7882 -31.7945 16.216  255 255 255
-51.2514 -9.37724 -18.0053  255 255 255
22.7183 -23.6769 28.2533  255 255 255
48.5995 -27.889 -5.15207  255 255 255
-39.1527 -12.1937 -15.6275  255 255 255
-21.4859 -16.297 27.3786  255 255 255
12.9133 -22.7632 32.1699  255 255 255
-49.7274 -11.0754 -16.3299  255 255 255
-22.2699 -16.508 25.9592  255 255 255
69.4121 -33.2011 12.4323  255 255 255
-19.4092 -17.1757 29.0582  255 255 255
15.2 -23.5953 30.6283  255 255 255
-2.96584 -20.4247 35.0403  255 255 255
-56.9494 -10.7118 -16.3828  255 255 255
-56.874 -10.7061 -16.0285  255 255 255
-46.1195 -12.9967 -14.5324  255 255 255
-45.8605 -13.2333 -14.6715  255 255 255
-42.0656 -14.0288 -13.5112  255 255 255
16.6518 -25.1702 30.5469  255 255 255
-19.8323 -18.4847 29.9108  255 255 255
-26.354 -17.3632 24.8327  255 255 255
-26.354 -17.3632 24.8327  255 255 255
-20.4362 -18.4394 28.8893  255 255 255
19.6301 -26.044 31.1321  255 255 255
15.7811 -25.3749 30.83  255 255 255
-39.4938 -15.65 -11.1741  255 255 255
58.0004 -34.144 -0.526602  255 255 255
16.0384 -26.434 32.1179  255 255 255
13.0362 -26.0539 32.0484  255 255 255
17.4569 -26.9739 32.5216  255 255 255
17.4569 -26.9739 32.5216  255 255 255
-44.3289 -16.5692 -9.86012  255 255 255
-26.4133 -19.1629 27.2442  255 255 255
43.8695 -33.1177 1.23702  255 255 255
-22.491 -20.2682 28.2707  255 255 255
-22.491 -20.2682 28.2707  255 255 255
-16.7785 -21.2541 32.1864  255 255 255
3.4938 -25.0747 35.9335  255 255 255
-15.7457 -21.5529 33.3309  255 255 255
-0.558675 -24.5201 35.7516  255 255 255
-51.2792 -16.4283 -10.2665  255 255 255
-26.5982 -20.2146 26.4197  255 255 255
-51.5799 -16.9002 -9.86365  255 255 255
-46.771 -17.7858 -9.01281  255 255 255
-6.74598 -23.8708 35.668  255 255 255
15.0965 -28.0811 33.7966  255 255 255
-0.316216 -25.1616 36.4913  255 255 255
-5.31488 -24.2764 35.9263  255 255 255
15.3795 -28.5 34.1101  255 255 255
-26.4062 -20.9686 26.333  255 255 255
4.11609 -26.3891 36.1297  255 255 255
-26.6791 -20.9781 25.7943  255 255 255
16.4318 -28.9702 34.8437  255 255 255
60.6743 -38.568 6.93973  255 255 255
10.0452 -28.1902 34.5765  255 255 255
-18.4983 -22.9113 31.2873  255 255 255
-13.9169 -23.7088 34.0526  255 255 255
-18.0467 -23.2772 31.4842  255 255 255
9.35477 -28.3653 34.7862  255 255 255
-55.7415 -18.5435 -7.77295  255 255 255
-50.4159 -19.7645 -7.07256  255 255 255
-18.2593 -23.9265 31.9694  255 255 255
-47.3653 -20.5267 -6.12854  255 255 255
61.8743 -40.9379 9.45219  255 255 255
-60.3145 -18.486 -7.8348  255 255 255
-45.7907 -21.2375 -5.47805  255 255 255
47.6508 -38.5897 6.6466  255 255 255
-59.6156 -18.8369 -7.48386  255 255 255
8.86247 -29.4955 36.1754  255 255 255
-24.2026 -23.4487 32.1022  255 255 255
-62.6533 -18.9325 -7.05208  255 255 255
-55.1626 -20.397 -5.47695  255 255 255
7.40723 -29.8418 36.3524  255 255 255
-33.5765 -24.0216 8.99818  255 255 255
-66.3396 -18.8166 -5.19998  255 255 255
-56.1595 -20.9578 -5.6395  255 255 255
53.8579 -41.9108 7.96672  255 255 255
-46.1585 -23.9419 -2.02216  255 255 255
5.82647 -31.0662 37.9033  255 255 255
-52.9487 -22.9534 -3.08906  255 255 255
-14.0426 -27.5883 36.0806  255 255 255
-50.4989 -23.6926 -2.3854  255 255 255
-56.7293 -22.7926 -3.08213  255 255 255
-68.4732 -20.9548 -4.52867  255 255 255
33.3995 -39.619 10.825  255 255 255
-53.6756 -24.2199 -1.21037  255 255 255
-16.0355 -28.4235 35.6725  255 255 255
-10.4408 -29.3782 37.5128  255 255 255
-52.5282 -24.8617 -1.02317  255 255 255
-13.7655 -28.941 36.9935  255 255 255
-2.73532 -30.952 38.7782  255 255 255
-2.73532 -30.952 38.7782  255 255 255
0.0273584 -31.495 38.6387  255 255 255
-15.0032 -28.7002 37.1538  255 255 255
-26.3215 -28.083 22.2582  255 255 255
-13.6363 -29.2089 36.9193  255 255 255
2.90644 -32.6182 37.3975  255 255 255
-66.2828 -22.9719 -2.5264  255 255 255
-54.5791 -25.5536 -0.146768  255 255 255
-65.7723 -23.6993 -2.03  255 255 255
-66.0625 -23.8237 -2.02249  255 255 255
-76.72 -22.3678 -2.72963  255 255 255
-54.6404 -26.2463 0.837766  255 255 255
-56.4062 -26.0789 0.555052  255 255 255
-0.143976 -33.7115 36.6672  255 255 255
-48.664 -28.198 3.26495  255 255 255
41.8122 -45.1524 14.9352  255 255 255
-42.7937 -29.7501 4.56042  255 255 255
16.7206 -39.2985 25.0326  255 255 255
41.3517 -45.8092 15.8562  255 255 255
44.2555 -46.4895 16.3359  255 255 255
12.4528 -39.3353 27.1127  255 255 255
-23.6997 -32.631 24.0399  255 255 255
49.5688 -48.542 18.739  255 255 255
-1.4702 -36.5545 33.8242  255 255 255
-54.8651 -30.423 5.40205  255 255 255
-14.6754 -34.9735 31.423  255 255 255
-33.7996 -34.0144 12.6506  255 255 255
-63.6676 -29.3652 4.38281  255 255 255
-63.6676 -29.3652 4.38281  255 255 255
-56.0239 -31.2277 6.12743  255 255 255
41.5111 -49.4052 19.9589  255 255 255
0.874153 -40.1254 31.4794  255 255 255
-63.7433 -31.1659 6.37993  255 255 255
-43.9241 -34.6221 9.81021  255 255 255
-52.2769 -33.2402 8.85466  255 255 255
-6.35108 -38.7672 32.2111  255 255 255
-0.766366 -40.7631 31.1096  255 255 255
-49.91 -34.4179 9.66091  255 255 255
37.49 -51.0607 22.1966  255 255 255
-71.6931 -31.2455 7.54654  255 255 255
37.3322 -51.2544 22.384  255 255 255
-53.2865 -34.9621 10.1516  255 255 255
29.4325 -50.1734 21.6256  255 255 255
-3.44682 -42.7129 30.1666  255 255 255
20.0455 -49.1333 24.972  255 255 255
24.6198 -51.1897 22.9759  255 255 255
24.7122 -51.2953 22.8089  255 255 255
21.3348 -50.6804 24.8355  255 255 255
31.9365 -53.4359 25.4221  255 255 255
-20.6038 -41.9388 29.1728  255 255 255
-8.2901 -44.9858 31.2182  255 255 255
-6.3512 -45.6483 31.517  255 255 255
19.8065 -52.7352 26.0179  255 255 255
-17.9761 -43.7983 29.8656  255 255 255
30.2415 -55.5308 28.0345  255 255 255
-20.6711 -44.8679 25.6683  255 255 255
-18.0273 -45.0723 28.3045  255 255 255
-47.8761 -41.431 17.5564  255 255 255
-31.7625 -44.0547 21.4254  255 255 255
-52.5758 -41.0187 17.1522  255 255 255
-52.5758 -41.0187 17.1522  255 255 255
-47.5664 -41.9659 17.9803  255 255 255
-42.5814 -43.2071 19.1453  255 255 255
-60.3369 -40.4116 17.2362  255 255 255
-40.6832 -43.9917 20.0108  255 255 255
-68.5871 -39.5583 17.0049  255 255 255
-33.6355 -46.0733 22.1384  255 255 255
27.9199 -57.995 30.6388  255 255 255
-58.8007 -42.1811 18.9308  255 255 255
-15.4889 -48.9629 27.7474  255 255 255
15.9252 -55.6901 29.2851  255 255 255
-5.78545 -50.9328 29.1786  255 255 255
-15.6035 -49.2469 27.8943  255 255 255
14.7082 -55.7365 29.805  255 255 255
-10.0898 -50.3092 30.0287  255 255 255
-54.3283 -44.828 21.9436  255 255 255
-26.9989 -49.5834 25.7091  255 255 255
-48.9433 -45.9565 22.6079  255 255 255
-54.913 -45.135 21.8797  255 255 255
-47.8293 -46.3994 22.908  255 255 255
-29.6004 -49.3914 25.7209  255 255 255
-32.6358 -48.924 25.3637  255 255 255
-37.9237 -48.2832 24.5828  255 255 255
-32.2622 -49.3192 25.6773  255 255 255
-15.4509 -52.7959 30.4962  255 255 255
12.5584 -58.4984 33.5486  255 255 255
-39.8606 -49.4146 25.6245  255 255 255
-29.9095 -50.9337 27.4963  255 255 255
-46.3494 -48.4776 25.1888  255 255 255
-37.2771 -50.0163 26.1608  255 255 255
31.7557 -63.2487 35.9926  255 255 255
-1.62504 -56.5431 32.5568  255 255 255
38.6486 -65.3651 36.7999  255 255 255
31.0326 -63.4925 36.4892  255 255 255
-64.992 -46.4863 24.771  255 255 255
-29.2973 -52.6878 29.3436  255 255 255
-18.8691 -54.5921 30.583  255 255 255
-62.7944 -47.1074 25.3379  255 255 255
-49.3684 -49.4537 26.7448  255 255 255
-49.3684 -49.4537 26.7448  255 255 255
-1.64835 -57.8554 33.1779  255 255 255
20.5983 -62.3146 36.4103  255 255 255
-13.1988 -55.7503 31.5131  255 255 255
30.8906 -64.6884 37.8506  255 255 255
-16.1973 -55.366 31.1857  255 255 255
-2.54468 -57.7351 33.7013  255 255 255
-53.7875 -48.9532 26.3521  255 255 255
-37.7277 -51.5652 28.6376  255 255 255
-49.279 -49.8406 27.3375  255 255 255
16.7252 -62.0828 35.9183  255 255 255
-12.3756 -56.3861 32.0799  255 255 255
-11.8289 -56.665 32.4703  255 255 255
-15.2939 -55.8815 32.5327  255 255 255
28.212 -64.7 38.3785  255 255 255
28.212 -64.7 38.3785  255 255 255
-54.3952 -49.4699 26.9751  255 255 255
-10.0752 -57.0852 32.9967  255 255 255
-50.182 -50.264 27.294  255 255 255
-30.529 -53.5693 30.2782  255 255 255
-0.396668 -59.1271 34.8786  255 255 255
-18.5732 -55.7995 32.2118  255 255 255
14.6501 -62.1087 37.4562  255 255 255
0.446219 -59.5812 34.751  255 255 255
-2.11257 -58.8986 35.0602  255 255 255
-36.8601 -53.1859 30.6447  255 255 255
7.16081 -61.2188 36.9589  255 255 255
14.9117 -62.8884 38.4753  255 255 255
-37.3951 -53.6159 30.5923  255 255 255
13.1048 -62.8975 38.3423  255 255 255
-50.5012 -51.5957 29.3193  255 255 255
-42.6663 -53.1869 30.1955  255 255 255
6.65418 -61.9632 37.8681  255 255 255
-31.678 -55.0887 32.62  255 255 255
11.0841 -63.436 38.0321  255 255 255
8.40822 -63.0978 38.2351  255 255 255
23.0093 -66.1527 41.0411  255 255 255
-1.52328 -61.2141 37.5555  255 255 255
-7.00796 -60.1825 36.8239  255 255 255
7.44392 -63.1426 39.2375  255 255 255
-39.2083 -55.1387 32.8745  255 255 255
-0.294132 -62.0824 38.5967  255 255 255
-0.242358 -62.2829 38.158  255 255 255
-61.7786 -51.3418 30.6856  255 255 255
6.46705 -63.4311 39.7441  255 255 255
24.3685 -67.3703 41.9518  255 255 255
10.3456 -64.2779 40.3676  255 255 255
-30.2181 -56.7654 34.4415  255 255 255
26.4068 -68.0223 42.2848  255 255 255
-35.331 -56.1308 33.6388  255 255 255
5.45091 -64.1034 39.301  255 255 255
-28.8513 -57.4325 35.3791  255 255 255
3.15097 -63.5873 39.8781  255 255 255
-15.4442 -60.0026 37.528  255 255 255
-33.2169 -57.1682 35.1626  255 255 255
-14.3935 -60.7948 38.396  255 255 255
3.59811 -64.6623 41.2113  255 255 255
-7.32057 -62.6403 39.7661  255 255 255
4.00106 -65.5726 42.3485  255 255 255
-28.6858 -59.7813 38.4013  255 255 255
-8.32426 -63.655 41.3506  255 255 255
-8.18492 -64.1363 41.9311  255 255 255
-29.2285 -61.5639 39.8333  255 255 255
-32.7087 -61.7217 40.0889  255 255 255
-3.12722 60.2457 -63.9825  255 255 255
-9.44989 58.5698 -61.6485  255 255 255
52.7834 22.6772 13.36  255 255 255
19.3445 61.2942 -81.5988  255 255 255
51.7983 23.1843 11.7518  255 255 255
25.5782 60.4679 -87.0675  255 255 255
51.0798 62.2709 -104.675  255 255 255
24.5668 57.8798 -88.9125  255 255 255
16.666 56.3313 -84.809  255 255 255
-12.8026 52.9021 -64.1448  255 255 255
-33.4333 50.9646 -49.8433  255 255 255
-41.2751 50.3629 -44.4098  255 255 255
-41.4211 50.6562 -45.2203  255 255 255
-52.6643 49.266 -36.7321  255 255 255
-7.80703 52.2144 -68.3722  255 255 255
23.7852 54.1348 -91.5081  255 255 255
-53.7765 47.0627 -38.044  255 255 255
11.886 50.7552 -85.3598  255 255 255
5.42738 48.7159 -82.1551  255 255 255
51.1933 25.0001 -29.8106  255 255 255
53.7809 22.4102 -24.9221  255 255 255
22.4632 43.1793 -82.4568  255 255 255
-48.2628 42.7996 -44.7926  255 255 255
53.2404 21.8998 -25.7958  255 255 255
-58.4108 41.319 -38.23  255 255 255
-61.1544 41.5208 -37.372  255 255 255
-12.15 43.5593 -73.6775  255 255 255
-60.5825 41.0589 -36.6694  255 255 255
52.9364 11.545 6.17427  255 255 255
-12.7096 41.9144 -71.4075  255 255 255
54.0637 19.0828 -26.8  255 255 255
-41.0791 39.521 -52.9579  255 255 255
-59.8386 38.4149 -41.9586  255 255 255
-12.3088 36.9275 -73.1246  255 255 255
-6.16038 34.6971 -71.3485  255 255 255
-55.4155 36.49 -46.2613  255 255 255
-12.6941 33.8184 -67.8306  255 255 255
-12.6941 33.8184 -67.8306  255 255 255
-32.6083 35.7695 -63.5041  255 255 255
-28.2304 35.9772 -67.809  255 255 255
-1.29379 30.5315 -66.3411  255 255 255
-59.076 35.2458 -45.0294  255 255 255
-7.93978 31.5346 -66.909  255 255 255
41.9844 21.2736 -58.6288  255 255 255
24.7189 23.7743 -61.0179  255 255 255
58.5297 2.23184 12.3167  255 255 255
30.6058 22.4862 -60.0413  255 255 255
29.0398 21.0765 -56.8866  255 255 255
-66.711 32.7994 -39.8964  255 255 255
-66.711 32.7994 -39.8964  255 255 255
-27.3414 30.4114 -64.807  255 255 255
-47.3186 31.9915 -56.5428  255 255 255
-21.6836 28.8847 -62.843  255 255 255
-64.073 31.7086 -42.7218  255 255 255
-19.8637 28.0312 -61.5173  255 255 255
39.4882 16.8303 -53.7124  255 255 255
39.4882 16.8303 -53.7124  255 255 255
57.5386 0.900874 9.37306  255 255 255
-63.8206 31.3746 -43.495  255 255 255
-63.1113 31.3689 -44.5409  255 255 255
62.0568 -1.69835 17.8148  255 255 255
-30.6347 28.6962 -62.7888  255 255 255
-51.9571 30.1166 -54.6222  255 255 255
59.3292 -1.15703 11.5054  255 255 255
-36.0882 28.8944 -63.8542  255 255 255
-54.9416 29.7601 -53.2633  255 255 255
-27.987 26.2877 -59.9922  255 255 255
60.7276 -2.36604 13.8329  255 255 255
-59.3449 29.364 -49.9272  255 255 255
-45.6608 29.272 -61.8894  255 255 255
49.3493 3.1493 -8.037  255 255 255
-65.3894 28.1257 -45.4337  255 255 255
-55.8419 28.0465 -53.7126  255 255 255
-55.7786 27.913 -53.0827  255 255 255
-61.0173 27.5663 -47.9875  255 255 255
47.2902 9.49449 -46.4501  255 255 255
59.5929 -3.17089 10.5482  255 255 255
59.1657 -3.25695 11.2154  255 255 255
-51.9022 26.8819 -56.5638  255 255 255
-57.2901 26.4606 -52.5294  255 255 255
-63.2799 26.55 -47.8937  255 255 255
-2.43805 16.4575 -50.4351  255 255 255
-39.1543 23.5366 -55.5549  255 255 255
-50.7793 25.7301 -57.8503  255 255 255
-54.3891 25.5349 -54.8969  255 255 255
-72.4714 27.0171 -46.1994  255 255 255
-18.4277 17.9524 -50.8342  255 255 255
-38.2372 21.5616 -52.8704  255 255 255
-55.1639 25.1852 -57.1385  255 255 255
48.806 4.91907 -41.3276  255 255 255
-64.1485 24.9949 -49.1079  255 255 255
-38.0291 20.9653 -52.4149  255 255 255
47.7405 4.94199 -40.8511  255 255 255
-58.8854 24.8715 -54.5717  255 255 255
-58.3937 23.9087 -53.5138  255 255 255
-57.866 24.1663 -55.6276  255 255 255
-39.9738 20.5754 -53.1225  255 255 255
-64.2195 24.2271 -50.48  255 255 255
-7.56863 1.47493 23.773  255 255 255
-43.7043 20.338 -51.4418  255 255 255
-65.4935 23.7596 -49.5461  255 255 255
-62.6026 23.1751 -53.4052  255 255 255
-41.525 18.1674 -49.61  255 255 255
43.6132 1.78115 -37.5738  255 255 255
-25.9233 14.4735 -46.4953  255 255 255
-81.4979 22.5374 -35.0271  255 255 255
-81.4979 22.5374 -35.0271  255 255 255
-78.0813 22.4272 -41.3948  255 255 255
-44.3596 17.1488 -48.0856  255 255 255
-65.1093 20.9345 -49.4415  255 255 255
-35.8931 15.4201 -47.4838  255 255 255
43.2531 0.291497 -36.111  255 255 255
-10.1228 -0.764304 26.1564  255 255 255
62.868 -10.0903 13.6526  255 255 255
-76.1737 22.179 -47.2261  255 255 255
50.9506 -5.27749 -9.81928  255 255 255
47.3454 -3.92684 -17.566  255 255 255
62.2231 -10.9097 12.0749  255 255 255
-49.2408 15.7116 -46.716  255 255 255
-62.7421 17.5208 -47.4488  255 255 255
42.899 -2.86951 -31.7361  255 255 255
-78.4339 19.2697 -44.7818  255 255 255
8.34673 -6.49619 30.839  255 255 255
12.0138 -7.08624 28.692  255 255 255
-9.11453 -4.35718 30.6853  255 255 255
-60.249 14.3502 -45.2734  255 255 255
-66.8382 14.8321 -42.3691  255 255 255
-66.8382 14.8321 -42.3691  255 255 255
12.6033 -8.16739 29.0443  255 255 255
12.8677 -8.10527 28.1143  255 255 255
-67.8677 14.7822 -45.6108  255 255 255
-42.2968 8.60255 -38.8118  255 255 255
66.9083 -16.4763 18.8536  255 255 255
-4.93729 -6.73342 33.0704  255 255 255
1.54871 -8.03342 34.0653  255 255 255
60.1427 -13.8275 3.00389  255 255 255
1.10288 -8.24099 34.7763  255 255 255
-39.0011 7.00536 -37.5525  255 255 255
13.4682 -10.0777 29.0099  255 255 255
48.8385 -10.6961 -19.4728  255 255 255
43.884 -9.40736 -25.2954  255 255 255
1.70877 -9.45193 34.7922  255 255 255
44.4895 -10.7577 -23.8765  255 255 255
-3.53059 -9.12832 34.7667  255 255 255
61.1126 -17.0578 5.66347  255 255 255
64.622 -17.9937 9.04875  255 255 255
-33.3295 2.56597 -32.9097  255 255 255
54.9093 -14.8027 -9.63033  255 255 255
-85.9102 12.7439 -42.5189  255 255 255
55.1215 -15.1543 -10.5447  255 255 255
53.9913 -15.3758 -10.9835  255 255 255
53.9913 -15.3758 -10.9835  255 255 255
-49.0616 4.48506 -33.8999  255 255 255
-15.3649 -7.67456 28.085  255 255 255
45.9126 -13.761 -20.6891  255 255 255
62.1434 -18.9415 5.42621  255 255 255
52.5027 -15.8612 -16.0662  255 255 255
59.0639 -19.047 -1.51556  255 255 255
67.3786 -22.2815 15.9344  255 255 255
-40.6733 -0.682089 -28.9679  255 255 255
-40.6421 -0.664337 -28.6897  255 255 255
10.3792 -14.7055 32.4399  255 255 255
55.2389 -20.4357 -11.2049  255 255 255
-41.9174 -3.45755 -25.4674  255 255 255
59.2741 -23.1518 -4.02164  255 255 255
-4.08777 -14.5493 35.8464  255 255 255
56.0625 -23.0294 -12.0554  255 255 255
23.8782 -19.2147 23.0449  255 255 255
-8.44071 -14.2784 34.9291  255 255 255
-58.2695 -2.3211 -25.6924  255 255 255
-34.8014 -7.03227 -21.9348  255 255 255
-19.8875 -11.9893 23.9656  255 255 255
-19.1638 -12.3062 25.1362  255 255 255
-48.1774 -5.31942 -22.8089  255 255 255
-43.5381 -6.46358 -22.5605  255 255 255
-49.5449 -5.34158 -22.9226  255 255 255
-70.6321 -1.47449 -26.2069  255 255 255
53.0972 -25.3095 -9.55811  255 255 255
50.2314 -25.4925 -7.81204  255 255 255
50.2314 -25.4925 -7.81204  255 255 255
-19.3346 -14.2067 25.8005  255 255 255
-4.6843 -17.2209 35.8532  255 255 255
0.679861 -18.6685 35.7411  255 255 255
-19.3997 -14.9312 26.8058  255 255 255
-78.3079 -2.85053 -24.4926  255 255 255
-78.3079 -2.85053 -24.4926  255 255 255
-17.0193 -16.6101 28.8067  255 255 255
54.479 -29.4159 -4.16845  255 255 255
-56.278 -10.0124 -17.1221  255 255 255
-56.3131 -10.001 -17.2851  255 255 255
-51.5617 -11.2721 -15.7  255 255 255
-42.1722 -13.1689 -14.8045  255 255 255
-10.3511 -19.332 33.6149  255 255 255
64.9554 -33.0971 2.5695  255 255 255
69.9757 -34.1493 13.3658  255 255 255
-46.5573 -12.9615 -14.8298  255 255 255
-55.2277 -11.3302 -15.9803  255 255 255
-49.9114 -12.326 -14.5146  255 255 255
-22.3953 -17.5556 25.9127  255 255 255
16.7552 -24.8323 30.2573  255 255 255
-48.3722 -12.9793 -13.9819  255 255 255
-15.1024 -19.3413 31.2555  255 255 255
-24.5318 -17.984 25.5885  255 255 255
-17.6046 -19.8017 31.8836  255 255 255
-20.4706 -19.3719 28.9313  255 255 255
-39.8739 -16.4734 -10.8887  255 255 255
-39.6933 -16.8334 -10.5314  255 255 255
-20.2681 -19.9582 29.1559  255 255 255
-8.50494 -22.1898 33.9153  255 255 255
51.3324 -34.2823 1.63613  255 255 255
54.3277 -34.9503 2.08685  255 255 255
-41.7008 -17.6744 -9.65571  255 255 255
-66.3253 -13.416 -13.481  255 255 255
-43.9299 -17.5177 -9.6391  255 255 255
-40.5842 -18.5048 -8.61177  255 255 255
-65.4433 -14.1265 -12.6634  255 255 255
-8.48081 -23.3544 35.2427  255 255 255
-22.1662 -21.0519 28.9318  255 255 255
-65.1305 -14.5137 -12.8232  255 255 255
-22.4821 -21.2266 29.5499  255 255 255
-45.0528 -18.5583 -8.2119  255 255 255
-23.3333 -21.3635 29.4418  255 255 255
-6.6838 -24.3114 36.3126  255 255 255
-44.8886 -19.5392 -7.18029  255 255 255
-44.0985 -20.3484 -6.26438  255 255 255
-57.6387 -18.2536 -7.96474  255 255 255
-57.6387 -18.2536 -7.96474  255 255 255
-57.2369 -18.4727 -7.63175  255 255 255
-22.7686 -23.0467 31.4879  255 255 255
4.31336 -28.0257 35.479  255 255 255
-48.0483 -20.613 -6.43084  255 255 255
-53.3581 -19.6261 -6.59069  255 255 255
-17.7624 -24.5257 32.337  255 255 255
-46.3844 -21.3532 -4.98858  255 255 255
-62.8606 -18.6275 -7.38578  255 255 255
-60.7545 -19.1702 -6.98519  255 255 255
-46.3818 -21.8137 -5.17117  255 255 255
22.7874 -34.8113 18.9303  255 255 255
-68.0752 -20.4102 -5.53527  255 255 255
47.7016 -41.7994 10.5998  255 255 255
58.6269 -43.8389 13.4656  255 255 255
-61.9176 -21.7492 -4.34161  255 255 255
-10.0087 -28.92 37.0271  255 255 255
-55.7527 -23.5771 -1.93334  255 255 255
37.7174 -40.8881 10.4969  255 255 255
-54.256 -24.0566 -1.35198  255 255 255
-55.4198 -24.1707 -1.40194  255 255 255
-54.2371 -24.521 -1.43793  255 255 255
-19.5021 -28.2617 32.0412  255 255 255
-15.5516 -29.1926 37.587  255 255 255
-44.6618 -27.5633 2.01014  255 255 255
43.7731 -44.7999 15.02  255 255 255
43.7731 -44.7999 15.02  255 255 255
35.1186 -43.5425 13.9139  255 255 255
-42.7467 -30.2026 4.82893  255 255 255
-63.2496 -26.7369 1.48175  255 255 255
-24.118 -31.3854 25.8651  255 255 255
16.8946 -39.8567 24.9231  255 255 255
-61.8032 -27.0595 1.67958  255 255 255
-1.34464 -35.1261 35.5076  255 255 255
-1.34545 -35.1162 35.4578  255 255 255
-62.3017 -27.5811 2.54053  255 255 255
-61.6545 -27.6835 2.87645  255 255 255
-60.6846 -27.9563 2.54941  255 255 255
42.7414 -47.2399 17.1554  255 255 255
32.601 -45.8828 16.4404  255 255 255
-47.9349 -31.1581 5.98309  255 255 255
-24.7717 -33.8614 23.8558  255 255 255
-55.4073 -30.8483 5.7959  255 255 255
-63.2692 -31.0661 6.4562  255 255 255
-63.2226 -31.0656 6.57438  255 255 255
-62.032 -31.3212 6.80954  255 255 255
-10.1408 -39.2822 30.1499  255 255 255
27.8377 -49.3095 20.6961  255 255 255
-55.9949 -34.4006 9.95419  255 255 255
-51.153 -36.0181 12.4585  255 255 255
-53.675 -36.3019 11.9435  255 255 255
21.8986 -50.5178 24.4793  255 255 255
21.9788 -50.6101 24.3239  255 255 255
-52.2057 -37.5007 13.2338  255 255 255
20.3681 -51.2315 25.5194  255 255 255
-30.6922 -42.7751 21.8598  255 255 255
-27.526 -43.3932 23.2536  255 255 255
-43.8143 -41.9178 16.9042  255 255 255
-41.8845 -42.3655 18.3027  255 255 255
-40.8666 -42.6119 18.8059  255 255 255
-62.4052 -39.8703 16.702  255 255 255
-46.2859 -42.6881 18.4232  255 255 255
-11.4965 -49.567 28.6895  255 255 255
-44.6691 -44.6809 20.9166  255 255 255
-44.1975 -44.8675 20.8718  255 255 255
-32.9688 -47.6115 23.7288  255 255 255
-48.0581 -45.4761 22.1642  255 255 255
-58.7423 -45.0491 22.3051  255 255 255
-39.2657 -48.4941 24.8186  255 255 255
22.4996 -59.897 33.9358  255 255 255
-41.3571 -48.5717 25.0353  255 255 255
-51.0402 -47.4054 24.8409  255 255 255
7.34744 -57.8489 32.902  255 255 255
31.3217 -63.2323 36.4321  255 255 255
-40.419 -50.0635 26.9885  255 255 255
-51.7458 -48.2869 25.387  255 255 255
-45.0929 -49.551 26.6404  255 255 255
15.9788 -61.2613 35.3714  255 255 255
-28.7846 -52.7278 29.3812  255 255 255
3.72085 -58.5721 34.3918  255 255 255
-39.9161 -51.2077 28.492  255 255 255
-39.9161 -51.2077 28.492  255 255 255
-17.0766 -55.2567 31.5985  255 255 255
-30.1608 -52.8312 30.7585  255 255 255
-12.0033 -56.4241 32.2516  255 255 255
-14.2187 -55.9967 32.2222  255 255 255
-0.771508 -58.7541 34.6959  255 255 255
0.955052 -59.2912 34.8566  255 255 255
-14.7345 -56.4259 32.6722  255 255 255
14.5134 -62.1224 36.6928  255 255 255
6.50891 -60.5791 36.6154  255 255 255
-49.4877 -50.8553 28.4351  255 255 255
7.28177 -60.9635 36.2363  255 255 255
9.31765 -61.3991 36.6523  255 255 255
14.6854 -62.9248 37.5459  255 255 255
-0.705189 -60.1175 36.3739  255 255 255
-0.705189 -60.1175 36.3739  255 255 255
-35.5721 -54.4429 31.383  255 255 255
16.3566 -64.3347 38.7373  255 255 255
17.6687 -64.6111 38.9289  255 255 255
21.0264 -65.9541 40.8967  255 255 255
7.96844 -63.7751 39.7974  255 255 255
-15.6727 -59.7516 37.2354  255 255 255
-15.6727 -59.7516 37.2354  255 255 255
0.473014 -63.0965 39.776  255 255 255
-11.9427 -60.7571 37.9671  255 255 255
-14.9757 -60.5062 38.2043  255 255 255
-0.762177 -63.8487 40.0202  255 255 255
-31.8191 -59.8217 37.9062  255 255 255
-31.25 -60.3851 38.521  255 255 255
-24.9421 -61.4851 39.7532  255 255 255
-29.1685 -61.0186 39.5658  255 255 255
-28.8206 -62.0405 40.3595  255 255 255
-2.23288 60.3008 -65.8492  255 255 255
64.6638 67.9161 -111.984  255 255 255
26.5039 59.5236 -90.4239  255 255 255
26.8271 54.7233 -92.0582  255 255 255
-7.26902 51.7891 -69.7166  255 255 255
53.0307 27.5472 -23.3693  255 255 255
53.3996 26.6396 -23.8726  255 255 255
-26.3717 44.696 -61.2358  255 255 255
-7.29676 44.2496 -75.8959  255 255 255
-57.4833 40.5709 -40.054  255 255 255
-56.7299 39.9997 -41.326  255 255 255
58.3072 6.99458 15.606  255 255 255
-5.51704 38.987 -76.1851  255 255 255
-16.3562 39.7246 -72.816  255 255 255
52.9728 17.5644 -28.034  255 255 255
-62.3644 38.009 -38.8888  255 255 255
-3.36202 36.2798 -72.6181  255 255 255
-51.8133 36.7116 -47.3838  255 255 255
-14.4153 36.9247 -73.2211  255 255 255
-59.5838 36.2658 -42.9431  255 255 255
47.1901 10.7948 -7.5977  255 255 255
-55.0016 35.7556 -46.4148  255 255 255
-70.9268 34.6998 -32.6234  255 255 255
-12.0652 33.0182 -67.8517  255 255 255
-4.99791 31.8425 -67.7069  255 255 255
-82.9948 34.7856 -25.2049  255 255 255
47.0263 17.3303 -43.8238  255 255 255
-55.6203 33.5772 -47.0009  255 255 255
-12.1434 30.4233 -65.8464  255 255 255
-62.211 32.9525 -43.5516  255 255 255
11.8296 23.2615 -59.4424  255 255 255
11.9666 23.4244 -60.3061  255 255 255
-37.5406 32.3089 -63.9982  255 255 255
-66.6606 31.3058 -41.2626  255 255 255
59.8895 -0.778916 14.3149  255 255 255
-43.4383 30.1057 -58.0923  255 255 255
-21.9038 26.4384 -60.7903  255 255 255
-55.7053 29.3132 -50.2183  255 255 255
-62.3278 28.5543 -47.0331  255 255 255
47.7157 3.44238 -11.8421  255 255 255
-22.9482 22.3908 -54.2628  255 255 255
-54.1732 27.7716 -55.6779  255 255 255
36.6804 11.3243 -48.4678  255 255 255
30.4732 11.7304 -48.3241  255 255 255
-54.6543 27.245 -55.7447  255 255 255
39.2556 9.8396 -47.2173  255 255 255
50.8397 6.99115 -41.7451  255 255 255
-59.8745 26.5228 -52.0491  255 255 255
51.2821 6.28268 -41.2309  255 255 255
-74.8506 27.0933 -43.6053  255 255 255
-39.7009 22.7464 -55.3647  255 255 255
-39.6753 22.6642 -54.9249  255 255 255
-37.931 22.2775 -54.7125  255 255 255
-5.31689 15.3407 -49.0646  255 255 255
33.0198 7.88512 -43.7054  255 255 255
32.7611 7.76863 -42.7643  255 255 255
-58.1712 24.678 -54.173  255 255 255
-65.377 24.5408 -48.684  255 255 255
-65.7746 23.7451 -46.2626  255 255 255
-62.5762 23.2614 -51.4072  255 255 255
-62.6141 23.281 -51.5549  255 255 255
-62.616 22.7925 -54.3129  255 255 255
-63.1705 22.2108 -52.2709  255 255 255
-79.4093 21.0774 -37.6258  255 255 255
-70.6767 20.4735 -50.7807  255 255 255
-75.3258 20.2509 -46.8713  255 255 255
43.3852 -3.05366 -31.2903  255 255 255
-35.4067 10.7341 -41.9118  255 255 255
-69.4947 16.1685 -45.6218  255 255 255
-26.7954 7.69119 -39.4449  255 255 255
-37.4963 8.31654 -39.0429  255 255 255
54.1357 -11.6666 -7.48056  255 255 255
-50.53 9.86714 -40.7232  255 255 255
-50.53 9.86714 -40.7232  255 255 255
23.9215 -9.262 12.0864  255 255 255
-28.2711 5.12655 -35.9699  255 255 255
-54.4422 10.1931 -39.9986  255 255 255
-54.6356 9.63414 -39.2199  255 255 255
-69.1956 12.2656 -41.7967  255 255 255
47.0722 -9.9469 -23.2775  255 255 255
9.23135 -10.2525 32.2871  255 255 255
-39.4406 4.60112 -34.2032  255 255 255
-38.8048 4.08497 -33.8784  255 255 255
-75.2224 11.4302 -40.895  255 255 255
-13.4775 -7.06854 29.2468  255 255 255
-58.7559 7.27541 -37.2184  255 255 255
-37.8623 3.09056 -33.4757  255 255 255
-18.3954 -6.17909 23.325  255 255 255
-59.4848 5.39834 -34.7639  255 255 255
-46.2347 2.17076 -32.4088  255 255 255
44.0468 -14.9748 -19.0323  255 255 255
-48.6761 2.19181 -31.0362  255 255 255
51.9165 -16.6948 -16.706  255 255 255
-61.1734 4.30606 -32.8462  255 255 255
50.2882 -16.5974 -18.4359  255 255 255
-45.3208 0.613561 -30.522  255 255 255
-37.1827 -1.41078 -28.4346  255 255 255
12.1463 -14.6559 31.5066  255 255 255
-44.5218 -1.09548 -27.1527  255 255 255
23.1911 -16.69 20.8934  255 255 255
-41.6547 -2.03272 -27.3903  255 255 255
52.5199 -20.675 -13.4343  255 255 255
55.3281 -21.8707 -11.9852  255 255 255
-84.9172 3.96846 -31.946  255 255 255
56.4978 -22.9615 -11.4728  255 255 255
55.3142 -24.0945 -10.2785  255 255 255
-68.8491 -1.50703 -27.4072  255 255 255
56.1542 -24.9795 -9.33876  255 255 255
69.9244 -28.4461 16.9814  255 255 255
-22.4417 -12.5393 23.5052  255 255 255
-38.3828 -9.9574 -18.2219  255 255 255
2.99772 -18.9976 35.3839  255 255 255
-26.1228 -13.4637 20.6739  255 255 255
-43.0242 -9.4082 -18.3872  255 255 255
-47.0559 -9.24488 -18.347  255 255 255
-57.0745 -7.88348 -19.5214  255 255 255
-24.4697 -14.9758 22.0732  255 255 255
47.0382 -28.643 -5.2679  255 255 255
-38.2024 -13.2933 -14.9285  255 255 255
52.7382 -30.1019 -3.53878  255 255 255
-55.3119 -10.2153 -16.4656  255 255 255
18.0191 -24.151 29.3224  255 255 255
-23.5787 -17.7199 25.5188  255 255 255
52.3407 -32.259 -0.0100736  255 255 255
-23.642 -18.1313 25.4876  255 255 255
69.2853 -35.4928 11.2667  255 255 255
-40.0504 -15.7692 -11.3354  255 255 255
-51.321 -14.367 -12.1048  255 255 255
-24.071 -18.9896 27.0631  255 255 255
-43.9851 -16.357 -10.6975  255 255 255
43.3243 -32.5512 0.571544  255 255 255
-10.2466 -21.9683 34.2064  255 255 255
-21.5598 -20.9685 29.0939  255 255 255
-20.5293 -21.509 29.506  255 255 255
-22.0054 -21.3792 29.4404  255 255 255
-50.8192 -17.946 -8.01565  255 255 255
-22.9392 -21.8185 29.9235  255 255 255
54.2624 -37.8683 5.39447  255 255 255
-50.2127 -18.6528 -8.07995  255 255 255
-21.1354 -22.7121 31.0486  255 255 255
-48.572 -19.2669 -7.0592  255 255 255
-24.091 -22.7981 30.9852  255 255 255
9.87537 -29.351 35.6028  255 255 255
-16.6833 -24.449 32.7232  255 255 255
-15.5689 -24.7838 32.6674  255 255 255
-43.5486 -21.5638 -4.94731  255 255 255
-51.3486 -20.4194 -6.17785  255 255 255
-51.4089 -20.4297 -6.50311  255 255 255
-11.5942 -26.1528 34.5338  255 255 255
-14.0109 -26.0513 34.1187  255 255 255
-55.7325 -21.7384 -3.56759  255 255 255
-48.5361 -23.1002 -2.74468  255 255 255
-52.2368 -23.3912 -2.85048  255 255 255
-50.8763 -23.8422 -1.91688  255 255 255
-51.8365 -24.1121 -1.48888  255 255 255
-53.2666 -24.8845 -0.783145  255 255 255
-12.5765 -29.2971 37.2794  255 255 255
-11.0032 -30.0657 37.5506  255 255 255
-4.64661 -32.0841 39.7975  255 255 255
42.902 -47.4471 17.7018  255 255 255
40.2077 -48.4587 18.6734  255 255 255
-21.0584 -35.5579 25.125  255 255 255
-51.6495 -33.2081 7.62531  255 255 255
-61.1267 -32.3493 7.90661  255 255 255
-61.4448 -32.5515 8.04131  255 255 255
-45.3403 -36.2637 11.9939  255 255 255
28.2505 -49.8531 22.3287  255 255 255
23.3671 -49.6619 23.3897  255 255 255
-74.5339 -34.109 11.6583  255 255 255
-53.0333 -37.8296 14.0293  255 255 255
-54.5149 -38.4011 14.156  255 255 255
-48.6367 -40.2287 16.2974  255 255 255
-46.8791 -41.3123 17.5547  255 255 255
-47.4615 -41.4923 17.7736  255 255 255
-42.5146 -42.7703 18.3197  255 255 255
-46.5343 -42.8313 19.0944  255 255 255
-46.5201 -42.7851 19.2552  255 255 255
-11.7704 -47.8481 28.6288  255 255 255
-3.69242 -49.743 29.7513  255 255 255
-13.5271 -47.9813 28.2934  255 255 255
-33.4199 -47.3571 23.5993  255 255 255
35.6718 -61.332 33.6326  255 255 255
-33.6403 -48.3915 24.8286  255 255 255
-50.5314 -46.086 23.0502  255 255 255
7.63538 -56.7152 31.2294  255 255 255
-56.8781 -45.3105 22.5658  255 255 255
-28.8852 -50.0572 26.4909  255 255 255
-46.5121 -47.226 23.8377  255 255 255
-31.2212 -49.7303 26.1294  255 255 255
-32.0213 -50.1669 27.1465  255 255 255
6.47657 -57.582 31.9622  255 255 255
6.89671 -57.8311 33.3656  255 255 255
10.165 -58.9316 33.2772  255 255 255
-28.515 -51.3772 29.104  255 255 255
-40.4961 -50.517 27.2137  255 255 255
6.50511 -58.8998 34.5822  255 255 255
18.7664 -61.7128 35.5503  255 255 255
-15.1746 -55.4751 31.7571  255 255 255
-42.9308 -50.9908 27.8942  255 255 255
-16.0377 -55.5102 31.7893  255 255 255
-15.501 -55.7084 31.8091  255 255 255
-15.0417 -55.8781 31.786  255 255 255
-15.0417 -55.8781 31.786  255 255 255
0.289455 -59.1881 34.9983  255 255 255
0.637296 -59.5902 35.335  255 255 255
9.89381 -62.0549 36.9225  255 255 255
-63.1992 -49.3659 28.3744  255 255 255
-54.0313 -51.0343 29.5004  255 255 255
-16.6732 -57.8665 34.2277  255 255 255
3.04516 -62.1408 37.9117  255 255 255
0.281262 -62.2272 37.7514  255 255 255
-52.7174 -52.8128 31.7368  255 255 255
7.48341 -63.4938 40.0451  255 255 255
10.0252 -64.3612 39.7792  255 255 255
3.36747 -63.2319 38.8823  255 255 255
-5.6911 -61.8298 37.7628  255 255 255
0.137754 -63.0807 39.9317  255 255 255
-6.81907 -62.1765 38.248  255 255 255
8.16726 -65.1772 40.8167  255 255 255
22.6401 -69.593 44.2004  255 255 255
-30.5549 -61.0559 39.0886  255 255 255
-26.171 -61.7765 39.7645  255 255 255
-24.3573 -63.2636 40.8767  255 255 255
55.1459 62.6049 -106.434  255 255 255
12.0419 49.0954 -87.2987  255 255 255
-29.2154 45.9444 -56.6487  255 255 255
11.9178 47.7871 -86.9668  255 255 255
51.4966 24.9227 -29.0329  255 255 255
52.3152 23.7813 -25.0802  255 255 255
-16.5298 44.3992 -64.0498  255 255 255
-56.4246 39.2577 -42.4722  255 255 255
58.0559 6.7497 14.9162  255 255 255
-36.7914 35.6469 -60.1177  255 255 255
50.5906 14.6713 -37.3883  255 255 255
-38.6162 33.2761 -62.2624  255 255 255
-38.6162 33.2761 -62.2624  255 255 255
-13.4994 29.2494 -64.1406  255 255 255
-54.7161 32.6696 -49.0535  255 255 255
39.7792 18.6592 -55.8038  255 255 255
-14.545 28.3463 -62.0531  255 255 255
18.4908 22.4748 -59.1966  255 255 255
-66.8982 32.2307 -40.8988  255 255 255
-55.2366 31.1769 -48.279  255 255 255
-0.533021 24.3672 -59.5218  255 255 255
16.81 20.5196 -56.0518  255 255 255
-27.3936 28.9485 -62.971  255 255 255
-55.4126 29.7236 -51.6619  255 255 255
-51.2894 29.0389 -53.949  255 255 255
-53.4916 29.0863 -52.7429  255 255 255
59.5125 -1.89496 12.2015  255 255 255
-74.0007 30.4163 -41.6316  255 255 255
-55.7213 28.2933 -51.4064  255 255 255
30.3416 13.031 -49.4069  255 255 255
30.3416 13.031 -49.4069  255 255 255
-38.8594 25.8601 -58.9665  255 255 255
-73.2986 28.6149 -43.5549  255 255 255
-38.2505 24.7685 -57.1513  255 255 255
-46.5069 25.9749 -58.0456  255 255 255
-46.5069 25.9749 -58.0456  255 255 255
-62.7104 26.0668 -48.6845  255 255 255
48.4831 4.08096 -40.3593  255 255 255
-66.1695 21.118 -50.7722  255 255 255
-48.6456 16.877 -46.5385  255 255 255
-58.481 18.3632 -48.8084  255 255 255
12.0779 -5.90131 27.7438  255 255 255
50.0106 -6.06246 -13.5172  255 255 255
-21.0264 9.07554 -41.0579  255 255 255
41.7068 -3.07391 -31.711  255 255 255
47.1999 -6.5418 -19.9329  255 255 255
47.7032 -7.38735 -18.7581  255 255 255
48.3281 -7.5823 -16.3907  255 255 255
14.0303 -8.46739 27.6124  255 255 255
-26.6471 5.2482 -35.9218  255 255 255
-69.9563 13.2766 -43.8661  255 255 255
46.1282 -9.74406 -24.5289  255 255 255
43.1605 -9.90181 -24.3332  255 255 255
3.45008 -9.79508 34.3913  255 255 255
-32.0233 3.34844 -35.173  255 255 255
-50.4859 4.89498 -34.0674  255 255 255
13.8234 -12.9465 29.6316  255 255 255
53.7245 -16.3048 -11.3911  255 255 255
25.003 -15.254 18.5079  255 255 255
-51.5191 1.45667 -29.5883  255 255 255
-15.8714 -9.95742 28.7278  255 255 255
1.57905 -13.4741 35.9413  255 255 255
1.57905 -13.4741 35.9413  255 255 255
-39.1993 -3.21563 -25.9969  255 255 255
18.5389 -17.3246 25.7516  255 255 255
18.5389 -17.3246 25.7516  255 255 255
55.1717 -22.6048 -12.0002  255 255 255
-26.7605 -9.99223 16.8125  255 255 255
-45.037 -4.81746 -24.4415  255 255 255
-19.8968 -12.2667 24.1652  255 255 255
-50.5852 -5.09909 -22.8762  255 255 255
-45.8447 -6.38432 -22.065  255 255 255
53.5293 -24.9361 -8.04863  255 255 255
-50.0706 -5.94821 -21.9759  255 255 255
-45.4234 -7.73705 -20.1428  255 255 255
-42.8864 -8.52201 -19.6478  255 255 255
-52.4817 -6.92761 -18.8718  255 255 255
67.2519 -29.2942 3.73374  255 255 255
-16.016 -15.9038 29.7908  255 255 255
-20.7329 -15.5676 26.9655  255 255 255
-57.5589 -8.41604 -19.8518  255 255 255
-55.2071 -10.8001 -15.5995  255 255 255
-23.4442 -17.0477 24.7086  255 255 255
-23.4442 -17.0477 24.7086  255 255 255
8.006 -23.6507 34.1244  255 255 255
-55.6585 -13.4595 -14.7148  255 255 255
53.6915 -33.7672 0.843234  255 255 255
50.0237 -33.3051 0.371457  255 255 255
-42.2988 -16.5986 -10.5351  255 255 255
-40.273 -17.581 -9.6953  255 255 255
-18.5099 -22.8169 30.9941  255 255 255
-22.2284 -22.386 30.804  255 255 255
-55.1414 -19.0961 -6.86331  255 255 255
-50.1136 -20.6726 -5.61641  255 255 255
-62.4497 -19.1019 -6.87033  255 255 255
-62.4497 -19.1019 -6.87033  255 255 255
-58.7136 -20.5365 -5.25816  255 255 255
-58.0942 -20.9908 -5.33779  255 255 255
-57.8746 -20.9287 -4.55849  255 255 255
-47.0964 -23.1108 -2.98365  255 255 255
-52.6835 -22.3896 -3.04894  255 255 255
-68.1781 -20.8466 -5.0011  255 255 255
4.03035 -32.6763 37.4656  255 255 255
54.3871 -45.4627 14.9349  255 255 255
44.1908 -44.5228 13.8937  255 255 255
44.1849 -45.2959 14.8998  255 255 255
-20.8336 -33.5077 27.204  255 255 255
-4.63713 -37.3967 34.4323  255 255 255
-22.3615 -40.1792 26.1061  255 255 255
20.8762 -50.8049 25.3777  255 255 255
-19.0302 -41.9544 28.4414  255 255 255
-45.4917 -39.3816 15.3284  255 255 255
-41.9753 -40.237 16.1832  255 255 255
-1.35452 -49.5267 29.1773  255 255 255
-1.35452 -49.5267 29.1773  255 255 255
34.8375 -61.1314 33.9012  255 255 255
-43.1243 -47.2161 23.7702  255 255 255
-50.4205 -48.4463 26.0028  255 255 255
-13.9961 -55.2079 31.7223  255 255 255
-23.8769 -54.4999 31.0576  255 255 255
-42.9472 -51.7407 28.857  255 255 255
-10.3597 -57.6893 32.7808  255 255 255
-10.4132 -58.1478 33.9122  255 255 255
-40.488 -53.4719 30.66  255 255 255
-40.8457 -53.9315 31.0445  255 255 255
17.6561 -64.9568 40.1003  255 255 255
-30.0958 -56.3141 34.5934  255 255 255
-30.0958 -56.3141 34.5934  255 255 255
10.4271 -64.3852 39.4234  255 255 255
-14.9237 -62.2534 39.1318  255 255 255
19.8649 -69.3206 44.2085  255 255 255
-29.4295 -60.1342 37.7509  255 255 255
18.3482 -69.827 45.0174  255 255 255
16.0713 -70.3727 45.7161  255 255 255
65.5654 66.1333 -109.43  255 255 255
5.56428 54.0864 -76.0149  255 255 255
16.5061 52.9087 -84.8987  255 255 255
-39.9077 47.9197 -47.2789  255 255 255
-31.6846 48.258 -55.8353  255 255 255
15.1167 49.5876 -91.2917  255 255 255
-31.4956 45.7569 -57.8335  255 255 255
-8.05182 45.9819 -74.8327  255 255 255
-49.8356 41.6736 -45.4661  255 255 255
-56.2063 41.2928 -39.5867  255 255 255
-15.8327 42.2511 -67.6103  255 255 255
-10.5689 41.4639 -74.2668  255 255 255
47.8057 13.1199 -5.97072  255 255 255
-6.37448 35.4995 -72.0177  255 255 255
48.2013 19.0455 -40.1394  255 255 255
51.5189 8.15235 1.93493  255 255 255
-32.3572 36.1734 -63.7599  255 255 255
-5.96711 32.6741 -68.9058  255 255 255
-38.9345 34.1599 -60.9367  255 255 255
32.1977 22.4087 -61.0218  255 255 255
-55.6625 33.0353 -47.7289  255 255 255
-66.1798 33.2575 -40.8805  255 255 255
-8.66079 28.4708 -63.9667  255 255 255
-36.2028 32.0082 -65.0572  255 255 255
-15.1448 27.5386 -61.6739  255 255 255
26.0067 16.5857 -50.6959  255 255 255
-72.0591 30.0203 -36.6951  255 255 255
-54.5504 29.8413 -51.8629  255 255 255
-32.3778 26.7387 -58.7156  255 255 255
62.4164 -3.5973 18.0897  255 255 255
-54.9033 27.8009 -53.7391  255 255 255
27.6624 12.2646 -47.8923  255 255 255
-56.9831 25.9993 -47.8869  255 255 255
-78.0891 27.3196 -37.1909  255 255 255
-74.176 28.164 -45.3874  255 255 255
-64.2157 26.4507 -47.6864  255 255 255
-46.6615 24.7305 -56.7924  255 255 255
